# 3D point list with one line of data per point:
#   POINT3D_ID, X, Y, Z, R, G, B, ERROR, TRACK[] as (IMAGE_ID, POINT2D_IDX)
# Number of points: 358, mean track length: 4.1499263863896614
2267 0.28970557022625321 0.52329374437975762 -0.53647896556281249 195 185 183 0.42136930898070007 40 2878 39 1617 38 1319 41 1628 42 1514 48 1457 45 1350 49 2222
2268 -0.48420529701128001 0.60899577111795744 -0.43695927854301708 100 79 76 1.3033479284538512 40 1379 33 2785
2269 -0.094499207846210992 0.76558941937750424 -0.43207146443199923 79 64 57 0.63740734218002315 40 1478 39 1640 38 1348
2271 -0.49708544429871121 0.93546460630637052 -0.52732348767419313 121 98 91 1.4659235461755153 40 1405 39 1649
2273 0.15992936910073824 1.1928594608143122 -0.55252523077314686 89 85 82 0.63266764202252734 37 3333 43 3775 39 1669 38 1660 41 2448 48 3157
2275 -0.32783170737184492 -1.0859047642204154 1.5190098748000933 144 148 160 0.39909364960633631 40 3546 38 1613
2278 -0.31922429650284517 -2.006707783495322 1.6845396882843542 174 170 167 2.5418865203656722 40 870 39 1763
2280 0.35350657008677056 -1.0805281457683775 0.54407572617683397 64 68 69 0.96271867416275259 40 1981 39 1773 42 1695
2281 0.3306433369194498 -1.0084680501265608 0.29651716998517014 144 148 149 0.37396628098504431 40 3537 39 1774 38 997
2282 -0.97038522735867094 0.2462302022487679 3.3541541224080844 150 151 156 1.6066707251304844 37 2160 39 1800
2283 -0.12179306257068422 -0.096427089479113132 -0.16627538355302787 116 110 112 0.52073033561151949 35 1058 39 1804 38 1479
2284 -0.98567106769222279 1.0562431349107075 6.6135031352748568 172 173 178 0.96663936313491217 37 1832 39 1806
2286 0.68658551727592698 -0.65815058483928879 0.32615567424762415 146 149 156 1.4102468456691919 40 2168 39 1846 44 1794 41 1823 42 1750 42 2937 46 1508 46 3249 48 3396 45 1745
2287 0.99262857649369851 -0.61609123335155191 0.44275313087825563 134 138 139 0.52770215801344567 40 3566 39 1852 38 1687
2288 0.10517613624806091 -0.5232972168983494 -0.0853005471210566 119 118 123 1.0079486678494189 40 2221 43 3252 39 1871 41 2722
2289 0.064835559162052261 -0.48676902569788549 -0.090995011572617454 159 158 163 0.58398667451563868 35 1815 40 1535 39 1879 46 2040
2290 -0.3774108006021622 -0.45543115860636757 0.051395125179103635 88 91 98 1.0736964077833755 37 3372 39 1886 34 2059 31 1838 29 1906
2291 0.67248907556800641 -0.38903859856236339 0.13322621075403804 78 83 89 0.36227093005398725 40 3124 39 1889 41 1162 44 1133
2292 -0.27484947770437057 -0.39733205836319085 -0.053972922380087211 59 57 60 0.54787108724895595 35 1157 37 1534 39 1892 38 1832 36 1433 33 2165
2293 0.18485400264157839 -0.31696825169028531 -0.15656743637072368 94 94 94 0.49695190619104085 37 1597 39 1908 38 1463 41 2079 44 1983
2294 0.31513542826311486 -0.3040588698067449 -0.14912023011998046 142 143 147 0.40828088210948582 43 2331 39 1911 41 1182 44 1548 42 1353 46 1739 48 2002 45 1527 47 1900 49 1812 50 2067 52 1901
2295 -0.96453657938290216 0.11422419268001865 3.3839529193797886 157 157 157 1.9017981851826988 37 1430 39 1916
2296 -0.31126544906759462 -0.7637808615845525 0.31038164477549107 126 128 134 1.471623620580921 40 3576 39 1940 24 1520
2297 0.14452824181686916 -0.71868572019581589 0.14218327505796774 69 72 79 2.0130045851240279 40 3592 39 1941 44 2820 41 1819 46 1286 48 1148 48 3375 45 1195 45 1743
2298 -0.27959085917130899 -0.73637034416596092 0.25037409808772859 118 118 123 1.0571466252990607 43 3668 39 1947 36 3216 35 1770 33 3446 31 1765
2299 -0.2514662809594197 -0.70838949161449705 0.13702592198154717 78 77 82 2.2519939571359227 43 1215 39 1948 37 1712 31 3143 24 3088 32 3356
2301 0.38467612395898076 -0.68181586478604539 0.67303262967554367 125 128 135 0.43256771137222122 40 3652 39 1956
2302 0.82834198839790518 -0.53149274698620064 0.32315803970596912 84 87 94 0.70366105481849806 40 2219 39 1985 38 1777 41 1843 44 2867
2304 0.35797504891880844 -0.47752070711920169 -0.038033899380558241 157 157 167 0.56785546524344022 38 1711 41 1676 44 1918 46 2777 48 1836 47 2429 50 2408
2306 -0.19244374209098633 -0.47963360485749185 0.26856042645969602 141 140 145 0.92093131480604262 40 1532 39 2010
2307 -0.81289420026196368 -0.48477400303315554 0.19766432601384801 75 81 77 1.0588180463929924 35 3205 39 2013 31 1828 24 1608 28 992 25 1706
2308 0.097685137219431908 -0.47211483530293363 -0.097252238339860117 56 55 60 0.33729519541421693 40 2249 39 2016 38 1804 41 1857 44 1928 42 3014
2310 -0.7269805998620279 -0.45096341149182051 0.13006467723608975 97 101 100 0.99396591146954083 35 2792 39 2030 38 1819 41 1496 44 1948 36 2101 34 2217 33 2228 24 1592 32 1671 28 2020 30 1990
2311 0.63782624257747578 -0.37746949128612439 0.074559609281697956 77 80 87 0.53894713816776485 40 2272 39 2034 38 1446 41 1450 44 1784 42 1841 46 1232 48 1179 45 1219 47 1210 49 1670 50 1623 52 1572 51 1593 53 1591 54 1480 55 2418 57 3026 58 3340
2312 0.50098359348886123 -0.34665220265649171 -0.035422481129679016 67 71 74 0.37381389915528923 40 3128 39 2041 38 2322 41 2356 44 2521 46 2091
2313 -0.55638530545242759 -0.34397042987282073 0.1191707638492429 68 72 73 0.60823267622310018 43 2202 39 2050 38 1843 41 1445 33 2274 31 2143
2314 0.36580802215341918 -0.33410240700729626 -0.10716362109936922 152 153 157 0.38000361338909755 40 2291 39 2051 47 2456
2315 0.16261615602854645 0.63289871502084716 -0.55491841283084664 111 97 88 0.63330100948741141 37 2779 39 2069 38 1913 45 2829
2316 0.672659738235451 0.81896746844454893 -0.4842466520862394 107 101 98 1.3859274299197091 43 2999 39 2090 44 1433 48 2390 36 2980
2318 -0.32218670928041665 0.98250427948610253 -0.57792142422443871 106 101 98 0.039664268986139201 40 3307 39 2110
2319 0.10870372203253154 1.1812917482752134 -0.55285466420586682 67 63 60 0.2216682849913397 40 3327 39 2137 44 2080 42 2977
2320 -0.19254788803899425 1.2491624368428256 -0.56591418436132013 120 115 112 0.93640472337765879 40 2666 39 2151 42 2125 34 3476 31 2487 47 2235 32 2673
2321 0.25835006830939228 1.3070282463848018 -0.56019057458675547 113 109 106 0.38788445952955725 43 3925 39 2158 38 2435 41 1990 44 2107
2322 -0.33467461725253056 1.2703891726377095 -0.58034220139908177 131 126 123 0.7326572349510837 40 3700 39 2165 38 2423
2323 -0.58712061365154999 -0.76632786765825656 0.3634570121833256 151 155 156 0.57548795572604561 40 3575 39 2182 38 1729
2327 0.29339550401889952 0.53678709308438011 -0.53892461904151034 197 187 185 0.36463925817389553 40 2873 39 2207 38 2061 44 2307 42 2304 46 3283 48 2628 45 2223 33 3571
2328 0.037345764959746855 0.51776414320245989 -0.52719582586073754 174 175 170 0.47991799616495207 43 3830 39 2210 41 2184 44 1708
2329 0.25214517850611268 0.45858645406187704 -0.53200506586772267 179 176 171 1.2469215737856454 37 2350 39 2217 34 2758
2330 -0.36967490892896293 0.48106509945818438 -0.39634117501386196 112 93 87 0.68393606203905877 35 2488 39 2221 48 1278 36 2702
2331 0.38461704598672308 0.46528302525264198 -0.50954065657156256 139 128 122 0.83472488868942663 43 3071 39 2222 38 2080 45 1334 47 1278 49 2420 50 2481 52 1732 51 1627 53 2527 54 1886
2332 0.29579743712695683 0.4461135584115879 -0.53566861111003694 210 202 199 0.4197476978841268 40 1802 39 2224 36 2743 24 3146
2333 0.35641680460673819 0.4043704316978326 -0.52275038739307422 128 113 110 0.72667599660005722 40 2921 39 2237 42 1486 46 1587 48 2665
2334 0.7033471108748981 0.423367654561984 -0.46247504787238497 121 94 86 1.3870518410365948 37 3325 39 2242 41 1778 44 1355 42 1065 46 1116 48 1437 45 1321 36 1680 47 2351 49 1344 50 1478 52 2080
2335 0.26512085554875148 0.36941081027414407 -0.51065751991896347 114 115 109 0.73975582561311426 43 2158 39 2249 44 2572 48 3104 36 1950 34 1976 33 2040
2337 0.588585277320544 0.25888791787280513 -0.58681461664663759 181 162 158 0.22247307497172558 40 2968 39 2268
2338 -0.08911221361226436 0.36101425507124935 -0.070514072629196525 204 193 187 0.83127883273636272 43 3163 39 2276
2339 0.77863886577377539 0.29306374704059002 -0.30516077071246767 219 205 202 0.98581101626539758 43 3941 39 2279 38 1514
2340 0.29604626408061208 0.14059599302924911 -0.75967736123526508 54 51 44 0.54866044632547573 35 1660 39 2280
2341 0.455049224420702 0.24628521787760901 -0.38645742760357848 179 170 163 1.3176178230130318 35 3266 39 2284 42 2408 46 2661 36 2267
2343 -0.33057370545789311 0.16436545857177651 -0.23960583006537234 166 152 147 1.0633654289218948 40 1086 39 2309 44 2549
2344 0.10789469682557491 0.10326996218322307 -0.24622475396531321 90 92 93 0.93102198317603257 40 2459 43 2524 39 2336 48 2282 36 2235 35 1659 34 2400 33 2390
2345 -1.1140777471180576 1.2950533487137905 6.1309082403215127 49 50 55 0.066864075751403684 37 2213 39 2345
2346 -0.96714453031825409 0.7244588103937184 3.2748154919076118 64 65 69 1.3921759750864688 37 2211 39 2349
2347 -0.95035933424703967 1.2647821894797806 6.1286843138601013 203 204 209 0.45976470762875066 37 2202 39 2350
2348 -1.107235854766051 1.1202609351527093 6.1888008900585367 60 61 66 0.66708079489136174 37 2192 39 2365
2349 -0.43883573994644332 -0.13984244568446155 -0.83056004880195722 57 58 63 2.7363098393601839 40 2407 39 2366
2350 -0.45231494600714139 -0.16577088358609968 -0.83746017698398878 191 191 199 2.5201192934908123 40 2395 39 2373
2351 -0.45069006063505757 -0.19493813828825568 -0.8268713411787364 160 160 168 3.0754375473770068 40 2386 39 2377
2352 -0.33804903253058105 -0.14059994138379267 -0.12298249420990655 115 111 108 0.82995207873791299 37 1266 40 2359 39 2386 38 2691
2353 -0.47819850435601247 -0.24281560457429838 -0.84309816965338191 57 58 63 3.1896381760660071 40 2365 39 2391
2354 -0.4634476919580679 -0.24088674405257474 -0.82304613110377745 55 56 61 3.15941428100369 40 2364 39 2393
2355 -0.97585412617566403 0.36286851139720244 4.5366243857659461 56 57 62 1.2121411193245912 37 2154 39 2403
2356 -0.96829787203656126 0.20275970678540461 3.3412121457179196 137 138 142 1.7819133486301508 37 2884 39 2405
2358 -0.066247099940400039 -1.8024200137720596 0.42090298208549642 92 92 100 1.0763324166542587 43 1449 39 2451 35 671
2359 -0.03757232922905434 -1.4870918504364974 0.20813590762420939 98 98 106 1.2519250067423866 43 3195 39 2461 41 2607 40 3425
2360 -0.040504696527940219 -1.4885265264876351 0.21726562030143029 98 98 106 0.45971339032978625 43 2929 39 2462 41 2313
2361 0.500051844927353 -0.88206887828693448 0.35635418566830207 88 91 98 0.74538033111111224 35 1543 39 2485
2362 -0.8500539223927166 -1.3401000741827851 4.798157245895168 88 93 97 2.3451537610363946 37 2828 39 2486
2363 0.072572884617714037 -0.72562440153575136 -0.47354171163723013 58 61 68 0.94804564907114064 43 3893 41 2681
2364 0.828095928524477 -0.53256285915866552 0.32335186536293931 84 87 94 0.59163274828564905 40 3116 39 2512 41 2349 44 2507
2365 0.63782624257747578 -0.37746949128612439 0.074559609281697956 77 80 87 0.53894713816776485 40 3126 39 2522 38 1629 41 1679 44 1905 42 1726 46 1030 48 1365 45 1091 47 1061 49 1574 50 1718 52 1700 51 1502 53 1339 54 1298 55 2916 57 2560 58 2775
2367 0.56719999884895944 -0.326089064144789 -0.034922018314113658 76 77 81 0.74522145514986271 43 2316 39 2529 41 2742 42 1675 41 1895 46 1842 45 1097 47 1691 49 1580 50 1541 52 1645
2369 0.6683998330167783 -0.18794277734618375 -0.042453149143148523 208 209 211 2.3276795482285904 43 1018 39 2532
2370 -0.96829787203656126 0.20275970678540461 3.3412121457179196 137 138 142 1.7819133486301508 37 2152 39 2533
2371 -0.51908271360773506 -0.17058906340396532 0.034914090491352398 56 57 62 2.3118391138638215 40 3151 39 2535
2372 -0.47819850435601247 -0.24281560457429838 -0.84309816965338191 57 58 63 3.1896381760660071 40 3172 39 2544
2373 -0.45069006063505757 -0.19493813828825568 -0.8268713411787364 160 160 168 3.0754375473770068 40 3182 39 2548
2374 -0.45231494600714139 -0.16577088358609968 -0.83746017698398878 191 191 199 2.5201192934908123 40 3188 39 2550
2375 -0.95035933424703967 1.2647821894797806 6.1286843138601013 203 204 209 0.45976470762875066 37 3084 39 2568
2377 -1.0520219541786904 1.2970337359678561 6.1340622687909079 64 65 70 0.12428340875678828 37 2214 39 2574
2378 0.37293516169973601 0.3794490028050016 -0.49255902883176739 114 91 88 0.22150987461568614 35 2927 39 2603 41 2399
2382 -0.33467461725253056 1.2703891726377095 -0.58034220139908177 131 126 123 0.7326572349510837 40 3699 39 2669 38 2424
2383 -0.067925559282369805 -1.8013489582593569 0.41628218495828007 92 92 100 0.96335408472027695 40 1523 43 1571 39 2741 35 558
2384 0.19548817268322699 -1.6959468896662973 0.25425730903033611 94 97 104 1.394564038823801 39 2753 38 1422 42 1236 40 2096
2386 -0.7187687651351069 -1.2186608049056749 -0.58795059456809562 0 0 0 1.4125596117302712 35 2091 43 1707
2389 -0.040504696527940219 -1.4885265264876351 0.21726562030143029 98 98 106 0.45971339032978625 43 3194 39 2778 41 2314
2391 0.11833006086788075 -1.3871052606126928 0.15267761713164615 191 191 199 1.7437723489236474 40 3453 39 2781 38 2535 44 2718 48 3249 52 1671 47 1652
2395 0.28848245126917355 -0.99967435042796327 0.26094544918368573 153 157 158 0.64455945553677063 40 1913 39 2822 38 1553 41 1386 44 1672 42 1641 46 2388 48 1720 45 1675
2396 0.90293013380073794 -0.92450594088389915 0.28474920238121126 86 89 94 3.0319017493692484 40 3554 39 2829
2397 0.29518868835257173 -0.7723441199873482 -0.38955118940135147 0 0 0 1.8625142045888223 35 2208 43 3656
2399 0.500051844927353 -0.88206887828693448 0.35635418566830207 88 91 98 0.74538033111111224 35 1761 39 2838
2400 -0.8500539223927166 -1.3401000741827851 4.798157245895168 88 93 97 2.3451537610363946 37 3138 39 2839
2401 -0.04568266621771417 -0.89420929166712759 0.4225873441196949 124 127 134 1.3158815903866836 40 3659 39 2843 38 2597 49 2683
2402 -0.07314619415840086 1.6745821904603684 -0.037950121698159978 122 118 115 0.18795727919372396 43 3535 38 2428
2404 0.019655551895184541 -0.32234262148800413 -0.163969822459023 186 186 188 0.21006297056659998 40 2299 39 2898 46 2113
2407 0.61272061579433468 0.1139886516388231 -0.23595294150636303 55 52 51 0.83363009789200249 35 2893 37 2193 39 1526 40 1656 43 2111 44 1568 42 1747 46 1874 48 1879 36 2233 34 2394 47 2467 52 2537 45 1926
2408 0.17938553311977545 0.5070722453287585 -0.52122141564700697 129 124 117 2.0361153774622611 43 1750 37 2378 35 2483 39 736 43 932 40 736 35 1947 38 577 41 1793 40 1814 44 616 44 1371 46 1419 48 2639 36 2705 34 2738 31 1869 50 2751
2409 -0.61798100053508886 -0.55129077904578183 0.13205093278328855 161 158 165 1.161012872750826 35 2200 37 3222 39 1989 35 1798 43 3747 45 2820 36 1960 34 2043 33 2129 31 2438 24 2708
2410 0.71512515445815428 -0.43175961723100204 0.19435668601030173 29 29 29 3.1021287975306997 40 1250 39 1258 35 2764 37 1602
2417 0.51008628564933667 -0.34536714690552794 0.028716406421775288 33 34 35 1.9186767480055562 39 2523 40 2280 41 1887 38 1842 44 1961 49 1680 47 1789
2418 -0.58290488089031911 0.21613591494578591 -1.1466913887832857 69 68 76 3.0176217898038242 40 6 39 7
2420 0.3813023657959726 -0.91760421405680503 -0.32615376846900151 0 0 0 0.51781545210364444 35 2171 43 1194
2421 1.189015110642786 -2.3964443187594928 2.7068476743591212 211 212 214 2.8925855088229131 40 1171 39 1493 38 1383
2422 0.27038315973832178 -1.4881426585705086 0.17282268205951046 121 124 131 1.5362293327320766 40 3429 39 1742 45 552 49 2557
2423 0.29709596268012667 -1.0540346886769414 0.31251158040040533 215 219 220 1.15068048438369 40 3081 39 2479 38 2284
2424 -0.96687407563293104 0.11276479650669313 2.3575389667554845 0 0 0 1.5824826790541953 37 2156 40 3148
2425 0.88366025385660507 -1.1036275650542249 0.24775117857387355 80 85 91 2.8388692872149512 40 3527 39 2799
2426 0.28317270237961978 -1.0459646726771141 0.23732873011855515 215 219 220 0.30440504503568888 40 3532 39 2818
2427 -0.53323402731818659 1.2063564211635125 -0.52079218650926251 167 154 145 1.6007287089034559 40 2656 39 2882 38 1937
2428 0.11847504025988462 -1.4122421344265952 0.58469472961880165 70 70 78 1.9325744769443058 35 1 39 0 38 0
2429 1.0541940345319556 -1.2981789359842035 2.2706595358563004 159 161 158 2.3703164517833843 39 13 38 3
2432 0.51833133110036345 -1.7334542011250345 0.44319809351095235 211 214 219 0.54638253802934955 39 60 46 51
2433 0.32370972781616414 0.065724787959281203 -0.21846476641213397 86 86 88 1.532579168078662 39 45 38 30 41 44 44 44 46 32 45 28 42 50
2434 0.44121936199574474 0.74064383584663862 -0.45003839721878819 172 153 144 1.1597079610129739 39 76 38 35 41 26 44 52 42 39 46 37 48 35 45 42 47 67 49 96 50 105 52 122 51 221
2435 0.64834208617108213 -1.4353032299254835 1.3055367695300948 206 206 214 1.0938008643626769 40 186 38 45
2436 -0.012334180275006029 -0.55171494026481982 -0.16784856679488733 142 141 146 0.086890284077689159 39 37 41 29
2437 0.40203273218900959 -1.2749877671945138 0.55840670017700855 58 58 66 2.8284621658969211 38 57 41 123 42 153 39 158
2438 0.34642195240224827 -1.6581565639312508 0.32975943548619302 69 69 77 0.74917695000875151 39 112 38 79 41 38
2439 -0.60205592382886286 -0.65777089715474213 0.22171277830001915 157 160 167 0.72424322182965895 39 121 40 114 38 100
2440 0.54050952461504542 -1.3827500998178426 0.85107006797030949 209 209 217 0.081620414253664342 39 309 38 139
2441 -0.26218966760558965 0.32430788322135584 -1.6287938822631032 158 153 147 0.77403113272120927 35 434 38 152
2442 -0.67210820443791475 1.7228235470860485 -0.14164399645781828 162 153 146 2.7655784011961373 37 353 38 157
2443 -0.68213049388114 -1.1702694223482657 0.22172428603409336 0 0 0 1.5581425524285037 35 152 37 124
2445 0.74442502247030196 0.19272804288273748 -0.32869374540147478 169 148 143 0.67947602484427616 43 338 38 195 41 158
2446 -0.28940676987700142 0.303957003843634 -0.53310208210499177 189 157 152 0.19854673390758221 40 210 38 201
2447 -0.39495051517642027 -0.14901358292547248 -2.0353408185999986 172 162 153 3.2782463555457584 37 2314 38 202
2448 0.73768593084850154 -0.56509670443117443 0.29751095907650016 89 92 99 1.963585400204932 39 401 43 1028 38 240 41 204 44 221
2449 0.5541133654265975 -0.39321781932001276 -0.0063326959148493475 121 120 125 1.6819576121551063 35 226 38 241 44 225 42 215 46 214
2451 0.55895309757099043 -0.39391381466306014 0.0095858225880560942 121 120 125 0.97135268825036647 35 191 38 261 44 174 42 184
2452 0.078025777124711773 -0.2630372399802679 0.054596475041494889 70 70 72 0.49357107274329309 39 330 44 395
2453 -0.15286063834648494 0.34340056124168461 -0.50642898110530776 169 143 134 0.76659552234283701 40 370 43 380 39 354 38 291 42 422 46 420 48 442 45 369
2454 -0.48964430542498194 -1.2168395558228673 0.28975163120473729 0 0 0 1.8484180920860647 35 296 37 184
2455 -0.091931381988094252 1.2026592915744629 -0.56067932817669452 70 66 63 1.1229542458491879 37 338 38 325 34 371
2456 -0.3791485311109164 -0.3825318568635358 -0.014405628756533959 97 98 100 1.010719931069161 37 285 38 339 41 306 36 309 34 285 33 280 31 288 24 539 32 355 28 295 29 316 30 434
2458 -0.39420033072590288 -0.38454188756861873 0.029680929605061489 97 98 100 0.68112799679089608 39 244 38 344 41 279
2459 0.0067210188103836487 1.208542863087477 -0.56738606966971272 66 62 59 0.93319614808993356 37 336 38 367 42 248 44 484 45 418 49 619 52 624
2460 0.20661787964574252 0.22021822617479714 -0.481388032630513 139 136 129 0.56234246284040257 40 446 38 405 41 390 44 413 42 408 46 412 48 431 45 359 47 679 49 679 50 613
2462 -0.47368224729633962 0.76757982353588616 -0.50668504002138914 86 71 66 1.4679080771170692 39 212 38 428
2463 -0.23811533434968113 1.0760294522121132 -0.52652080187562178 85 81 78 0.21624256150815202 43 476 44 651
2464 -0.09543497786508004 0.1618738111169343 -0.37590493474008496 169 157 151 0.52361492156007927 37 749 38 453
2466 0.35795428515918648 -1.5255039008365641 0.32634799359054428 62 62 70 2.1264704707850282 40 703 38 526 43 1156 41 471
2467 0.7142921382105728 -0.4653129814898026 0.1914465608072968 96 99 106 2.3317099360506401 44 244 47 248 52 221 51 238 56 261 54 233 58 339 57 248 42 182
2468 0.25139984079263983 -1.4699022507925126 0.17429694477371097 64 67 74 1.3160539393409616 43 768 38 552 41 344 42 576 48 701 46 1667 45 519 47 1309 49 2560
2469 -0.055615218355292761 0.71024737414304828 -0.41013978680093632 110 100 91 1.4203844603742901 39 595 40 615 38 597
2470 -0.17797363726541651 0.77590052238212748 -0.44696341223013525 68 59 52 1.1489216155387667 39 698 38 603 46 692 41 540 45 743 36 1163 33 1261 52 1324 32 1099 28 2509
2471 0.19180297674748939 0.7627227126391255 -0.46522344155687878 109 96 90 1.5682066363303184 39 699 38 605 41 884
2472 0.44661214573137042 0.82331375232802395 -0.45558574743326086 100 96 93 1.1772924653138328 35 714 38 609 42 548 48 576
2473 -0.019809093908456584 0.48894051307119968 -0.53962478874174702 163 155 148 1.0156129345646763 39 585 38 612 44 515 42 582 46 430 48 588 45 648 47 521 49 561 52 886 53 3041
2474 0.56507971679298719 0.28384866946582255 -0.443513404802372 210 192 188 1.7113104881921204 35 1125 38 618 46 668 36 1494
2475 -0.45834506797669777 -0.7687269595605748 -0.45812449468854127 196 200 199 0.75804028149245339 43 3639 38 652
2477 0.47852697638528663 -0.31523229939933678 -0.07200687331072704 135 136 140 0.49450504476839896 39 812 38 676 41 661 44 591 42 779 46 541 48 637 45 559 47 652 49 553 52 601
2479 0.17108951069947334 0.14302362719462097 -0.33414303722795996 216 204 205 0.86160408063990646 40 437 38 691 41 675 44 740 42 399 35 748
2482 0.52670622034949988 1.3339065782904 -0.56879894509833362 68 64 61 0.88437382808299836 39 1018 38 722 41 564 44 834 42 769 46 883 48 956 45 848 47 983 49 978 50 912 52 1013 51 1021
2483 0.45412458279511653 -0.39955166629242522 -0.049812865036029046 118 115 120 0.50697623077865672 39 933 38 732
2484 0.26960667894817297 -0.38975393394387942 -0.098266031634836798 124 125 129 0.52795177008506611 39 936 38 734 48 1184 45 1223
2485 -0.013729853795548098 0.84512067221226794 -1.0581508488390912 63 59 56 1.7199626885970274 43 980 38 755
2486 0.60562125309278658 0.703727731401387 -0.43215358654889802 141 122 115 1.5590983211179577 37 635 38 767 48 990 31 2864
2487 0.78248590263603168 0.56356161329476762 -0.51328770428376025 186 167 152 1.8620720612997834 35 1438 38 774
2488 0.6043970807388036 0.62441585362230889 -0.35141675000419081 85 66 60 0.81077675249493519 39 1350 38 775
2490 0.010217401282981544 0.4193248322921756 -0.52678160494780246 173 172 165 0.69256083175405692 39 791 38 785 41 736 44 1354 46 866 48 1426 41 2221 45 992 50 2318
2491 0.32424531169800841 0.37720263733068227 -0.51549573980012575 222 208 207 0.97700554214642077 43 1509 38 789 41 780 44 773 42 762 46 676 48 546 45 819 49 927 50 1200 52 939 51 856
2492 0.75740330805488931 0.3367388530339876 -0.40055085803327417 183 154 146 0.99393089297285198 43 1326 38 794 46 1102
2493 -0.033315160891706115 0.23488586676754072 -0.49866670142681169 215 206 199 0.8855587826471526 40 502 38 801 41 1218 44 1339 46 848 48 2755 45 2838
2494 -0.052864966368190804 -0.13344862909508207 -0.20554644809999637 74 74 76 1.1115038342610235 39 2382 38 822 41 787 36 2066 34 1108 31 2206
2495 -0.80222434139721677 -0.098687260040881838 1.1762748511898569 114 116 105 1.7399591464684343 35 759 38 827
2496 -0.87948129720945789 -0.3801667876782025 0.37305952363727041 210 210 202 1.2824471400929036 40 1257 38 833 36 922
2498 -0.41827704318716341 -1.2183314930233067 -1.0904663400048056 180 176 175 3.569267354372883 43 1725 38 864
2499 -0.14454705743911805 -1.7081251106665183 0.45659783771602902 159 158 163 2.2135276491900271 39 2176 38 865 41 825
2500 0.022816894980167687 -1.5620241462630999 0.21904912523361178 100 100 108 1.4354139039717642 37 2038 38 866 41 845 44 897
2501 0.40133549077131708 -1.0607826226640407 0.55962877982658654 200 200 199 1.3839218655368428 39 1495 38 883 46 3298
2503 0.32522196997112074 0.37552717024072252 -0.52397428865266615 222 208 207 0.54183771518637369 43 1346 38 921 41 731 44 846 42 869 46 588 48 665 45 890 34 1149
2504 0.38348057056597901 -0.47321108602551742 -0.026259641439597015 148 148 158 0.65648995243351016 40 1246 38 930 42 1313 47 1111 49 1438 50 2027
2505 -0.027042551300644972 -0.46741256178163709 -0.084580642035373022 146 145 150 0.35606434140786075 40 779 38 956 41 1159
2506 0.0036557676089674623 -1.7487276135425511 0.26536893952987523 158 157 163 0.0062525100218754626 40 856 38 959
2507 0.47156101010212953 -1.6260419222189459 0.47721259089427359 168 169 172 1.068699600528916 39 1188 38 976
2508 0.77544472054216507 0.5879080809869931 -0.34749583746308232 184 165 158 1.5366800975678738 40 1921 38 978
2509 -0.16011179936142325 -1.1633999529761962 -1.1124917541679455 176 172 173 1.6172775319471524 35 1531 38 989
2510 0.38613063797764308 -1.5481299921851668 0.38359207111775867 105 105 113 0.97233475756181775 40 3431 38 990 41 1090 44 1222 42 818 45 484 47 681 49 324 50 463 52 416 51 445 53 372 54 389 55 389 56 378 57 441 58 310
2511 0.31757077148583901 -1.382943973195436 0.21612981905182924 93 93 101 1.6032765004677478 39 1765 38 993 41 347 44 354 42 343 46 274 48 323 31 1655
2513 0.2067123740922521 0.23285698124981086 -0.4857074246333194 144 137 129 0.54103787177777141 37 1215 38 1014 48 1008 45 1105 47 1074 50 1676
2514 -0.10809066500719895 0.2853196126353289 -0.44351403430111314 209 198 192 1.081076442169584 39 1821 43 1503 38 1016 44 1804 36 1309 34 1670 33 2908 31 2293
2515 0.14279691809016962 0.35758750016746271 -0.52562998839647801 177 168 163 0.89424406681686153 39 1071 38 1018 41 1232 44 1146 31 1215 47 1264
2517 0.26253074812431998 0.58846710919781875 -0.54363543133007342 154 153 148 0.9552731253078538 37 2058 39 1121 38 1028 41 1008 42 1088 31 2604 36 2681
2519 0.034831080383989486 -1.762719373466886 0.29984550795040665 110 110 118 0.78508065726970644 40 1427 38 1077 41 1077 44 1739 42 1689
2520 0.044711627677309525 -1.6595330176665388 0.26318753961582891 139 140 149 0.46628466706323229 39 875 38 1084 41 1084 44 1219 42 1239 46 1566
2521 0.3704235365423304 -1.0819870347059246 0.60459138663436662 89 89 87 1.6534065901560289 39 2480 38 1098 42 1636 46 1804
2522 0.71429291488248425 -0.70758869876771135 0.41398231867183671 136 139 148 1.9385648265418605 39 1233 38 1125 42 1146 37 3170 41 1126 45 1731
2523 0.96925623462586608 -0.58203418635219828 0.3924754252750427 113 113 113 2.0465818257384281 43 2075 38 1133 42 1290 44 1859 46 1402 48 852 45 769
2524 -0.75929865403075014 -0.59385619074730067 0.19135554345983716 150 154 155 0.98768923789627472 39 1861 38 1136 42 1871 44 2947 36 1307 34 2152
2525 0.54426290574118463 -0.36826374100516035 -0.0055511172490510033 130 136 136 0.66209836158490121 39 1265 38 1163 41 1164 44 1910 42 1727 46 1031 48 1968
2526 -0.52761159135908875 -0.36322252919176073 0.11289975370105805 69 73 72 0.63984902385894238 39 1272 38 1164 44 1303
2527 -0.041354809943799295 -0.35484642064045335 -0.14306985029666042 144 142 141 0.34585812051309689 40 1265 38 1166 41 1171 44 1136 46 1234
2529 0.03275411919661067 0.10045241234068285 -0.25393969342792627 80 84 85 1.1167699719954993 40 1298 38 1187 36 1473 34 1112 40 1658 33 1193 31 2049 51 1359
2530 -0.41019461007816527 0.14854583699863905 -0.37141899209053397 192 175 168 0.4823637882445726 39 1302 38 1192 34 1639
2532 -0.10626774472154436 0.28094321564821118 -0.43305479022201104 209 198 192 1.548063290667135 43 1327 38 1210 33 2913
2533 0.59097481399457763 0.31909981292721412 -0.53015745404064485 169 144 137 1.0042079311922425 38 1215 41 729
2534 -0.081577791931827751 0.55243849440278259 -0.4679263513178531 112 101 95 1.1300584936228828 40 1019 38 1240 41 1796
2536 0.484563430128438 1.0459162953405463 -0.52597598773150112 63 59 56 1.1435518672020839 39 1574 38 1270 44 1456 41 1296 42 952 46 902 46 1296 48 975 45 860
2537 0.53525242929919936 1.1185299716102692 -0.5308982588230664 64 60 57 1.1804518855486994 43 1823 38 1276 41 1558 42 1578 48 1328 33 1388 47 1619 49 2126 50 2576 52 2315
2538 -0.46177929118272421 1.3964828386729002 -0.61443826279605651 77 73 68 1.8696420730658923 35 1407 38 1279 42 1587 37 3021
2540 0.28126912726735037 0.55071674279301142 -0.53670139756017221 129 126 121 0.69465589591844512 35 2469 39 1352 38 1327 41 1803 44 1378 42 1519 45 2216
2541 0.49941635232129805 0.65859139609304873 -0.39542271505799526 131 112 106 1.2896621365684082 43 3483 38 1332 41 2160 44 2296 42 2287 46 2967 48 3126 45 2509
2543 0.0058870070533129501 0.6314752537326993 -0.55905139951175498 121 108 100 0.59862450144556822 39 1362 40 1385 38 1336
2544 0.44321384373827544 0.75492264503521811 -0.41159081507212986 173 154 147 1.4727853559697319 40 1388 38 1346 41 1528 44 1417
2545 0.64584805729106809 0.82036288469344421 -0.42838571278749171 158 141 134 1.2858148743666338 43 3002 38 1358 42 1558 45 1395 48 1503 47 2273
2547 0.12271162090637057 1.206710078804017 -0.55661626083526305 92 88 85 0.58655339633877657 40 1628 38 1380 44 2088 46 2327
2548 0.29856724948179819 1.236554413171399 -0.56678913709401302 67 63 60 0.81100487867915705 39 1384 38 1385 47 1423 52 2310
2549 0.46109328147950063 1.3142616058999985 -0.53579207988518351 92 88 85 1.5963920742069742 40 2662 38 1391 44 2109 42 2169 36 2351
2550 0.47218429551073354 1.3061542284919783 -0.56214953562216119 69 65 62 0.90321333569405493 39 2153 38 1432 41 1994 42 1591 46 2364 48 2474 45 2116
2551 -0.2046961797700208 -0.40325807243049194 -0.032861950791258213 122 120 125 0.65431051171798649 40 1565 38 1445 46 2079 48 2085
2552 -0.85953462641309542 0.056509461797414784 1.5834977255850866 169 166 156 1.1518645713245617 35 3275 38 1475
2554 -0.2941446337081135 0.2012866233317219 -0.44525967190073085 184 165 161 0.44950803750277107 40 1732 38 1507 42 1671
2555 0.30829737558992931 0.22115686231586326 -0.35974988106547484 113 108 105 0.36982557717859066 39 2296 38 1508 41 1741 44 2422 42 2423
2556 0.095463403645766207 0.22524466787062083 -0.48542397745348148 182 168 159 0.44237095815128707 35 2597 38 1513 41 1746 44 2410 46 1983 48 1642 45 2333
2557 0.77073120997899147 0.3034909593205386 -0.3201363347795409 111 96 93 1.3918024480275006 43 2656 38 1517
2558 -0.1749368227153687 0.31158686230258797 -0.45910334319151608 178 156 147 1.2477427948613586 43 1336 38 1518 41 1751 44 1343 46 1096 45 1287 36 1108 34 1144 49 2281
2559 0.47535635674328963 0.31329531798422733 -0.44757378158798777 175 156 152 1.0871705340007682 40 1331 41 1225 48 1265
2561 -0.087846554974417929 0.35629190981994552 -0.54755721425741322 222 212 203 0.38960183175486179 40 2928 38 1524
2562 0.74250396886793868 -1.5829162294954569 0.87881373019642417 126 124 122 1.4052576272291797 39 1194 38 1527
2563 0.48986970226678478 -1.430548632616941 0.53657090825614795 178 177 185 1.9424701889879905 40 1182 38 1530
2565 0.19702755135411229 -1.0566080068266845 0.11534697149660784 126 125 133 1.0122674343750147 39 1668 42 994 41 2748 46 777 48 1353 45 2741 47 1174 49 1081 50 1900 52 2751 53 2422 56 1351 57 1440 58 1473 59 2252
2566 -0.21264186555713066 -0.93331429453222481 0.2796651525107921 129 132 142 0.78485063910934938 39 897 38 1559 46 3177
2567 0.74250396886793868 -1.5829162294954569 0.87881373019642417 126 124 122 1.4052576272291797 39 1405 38 1598
2568 -0.5454052579061659 -0.57985814758945065 0.17320883280409075 102 105 112 0.73540074360258512 39 1418 38 1621 41 1674 44 1882 42 1801 46 2396
2569 0.71733890257826993 -0.51522617123853676 0.28927107564853044 102 105 112 1.2276590881149958 40 1446 48 331 47 623 49 631
2570 0.38094167108877464 -0.33935581572295831 -0.094432732757856006 71 74 77 0.37413942615886298 37 2868 38 1631 42 1729 46 1839
2571 0.77073120997899147 0.3034909593205386 -0.3201363347795409 111 96 93 1.3918024480275006 43 3446 38 1640
2572 -0.56414890604703649 0.36441471311624796 -0.31320057113972583 213 181 172 2.0621302531508632 35 1922 38 1641 41 2263
2573 -0.1359074721229277 0.33147779548739587 -0.50757256392984174 150 131 125 0.64203649696629794 43 3123 38 1642 34 2795
2574 0.51776532558141042 0.43773764959554984 -0.48778489135363301 92 74 68 0.80731169353893206 43 3469 38 1645
2575 0.49941635232129805 0.65859139609304873 -0.39542271505799526 131 112 106 1.2896621365684082 43 3484 38 1651 41 2416 44 2590 42 2698 46 2543 48 3127 45 2194
2576 -0.4395519096292792 0.74548380228058198 -0.4497980526180046 109 90 83 0.62286660947808359 35 1032 38 1652 41 1705
2577 0.54157187452971189 1.0639197919056291 -0.52574774645043332 65 61 58 1.4127731757519622 39 2641 38 1655 41 1711 44 2167 42 1678 45 2549
2579 0.56667894598311008 -0.84581797108954526 2.4481571302193919 77 80 87 2.2614695068800801 35 1197 38 1677
2580 0.6706213671290302 -0.62170607931954736 0.29850624429866068 149 152 159 0.46431594102154633 39 1851 38 1686
2581 -0.54677384086005165 -0.58006049605971788 0.18187133516973375 102 105 112 0.62971715720643273 39 1241 38 1694 41 1499 44 1781
2582 0.8000977151650438 -0.49343971519067659 0.30251591580857845 74 77 84 1.1798941616801504 39 1873 38 1703 45 1463
2583 0.115789137046388 0.2388659020080745 -0.47806353865704243 163 153 143 0.73055295596537639 38 1706 44 2561 36 2924 34 3047
2584 -0.12408406180085804 -0.4738052360499746 -0.082197143634111805 169 168 173 0.27797046694784189 39 1881 38 1714 44 1937 42 1905
2585 0.53790710911081407 -0.43900653332006251 -0.070917234312395397 0 0 0 1.3561027506039454 40 1555 43 2275 39 1261
2587 0.20530415955010289 -0.67866313615528928 0.12553177790929085 70 73 78 1.9270927855444728 40 2154 38 1745 41 1822 48 3395 45 1751 34 2163 47 1050 52 1687 51 2287
2589 0.78674736774183396 -0.53178226071757317 0.32855823286026509 134 137 144 0.99607541190949134 39 1988 38 1776 41 1842 44 2851 48 2021
2590 0.40348030057872242 -0.47114469740837567 -0.015324188934652268 53 56 65 0.36806307364919383 39 2008 38 1800 42 1906
2592 0.092287980058873231 -0.45955494528866708 -0.10291230896559873 163 164 168 0.34713726549860185 39 2025 38 1814 36 2120 33 2259
2593 -0.38279732840005298 -0.43415145153281942 0.026046971646286228 111 114 119 0.74639360696475887 37 3282 38 1821 36 2033 34 2062 33 2151 31 2124
2594 0.15325486771505556 -0.39898460674104297 -0.078878883465315977 115 114 119 0.80780217157051892 40 2266 38 1829 42 1925
2595 0.44148188480421841 -0.34338000578837807 -0.071989273859743852 58 61 65 0.496266137709237 40 2285 38 1846 43 2305 41 1890 44 1964 42 1939 46 2096 48 2099 45 1857 47 1875 49 1795 50 2052 52 1880
2596 0.47121838216421269 -0.34299999542048426 -0.060483274153159981 58 59 63 0.40968320427623883 39 2525 38 1847 41 1507 44 1963 42 1941 46 2097 48 1990 45 1509 49 1793
2597 0.426808937424968 -0.33375336941416522 -0.034776161383858237 161 164 168 1.5757778523276453 39 2048 38 1850 41 1896 44 1970 46 1841 52 1882
2598 -0.62225708721814543 -0.33675449237680999 -0.11207016151684092 78 76 73 2.6139962608607115 39 1905 40 2294 38 1852
2600 0.073479998966208993 -0.40543950297846548 -0.14349292221323803 127 126 131 0.18168801591875655 39 2033 38 1861
2601 -0.44570974157517246 1.4062298718057822 -0.58026762144720478 84 80 75 1.8436822383683396 37 3416 48 2467 47 2223
2602 -0.39521423752750834 0.38000069851256874 -1.2335436367645793 163 152 150 0.21956627727813899 40 1488 38 1877
2605 -0.10644043557760327 1.014382369655259 -0.52148065428403823 81 77 74 0.31991830895092516 39 2637 38 1897 42 2708
2606 -0.13723817700403398 1.0452387034555508 -0.52332328267944195 114 113 109 0.63177967870028506 40 2581 38 1902 41 2118 44 2240 46 2509 48 2403 45 2025
2607 0.21799778885653634 1.0545841734041459 -0.51918963510646798 93 89 86 0.66580523630948241 43 2959 38 1908 44 1452 46 1767 41 2747 48 3519 45 1413 47 2852
2608 -0.22446715595933159 1.0722356467608807 -0.545227132075214 67 62 59 0.76857650478764616 39 2121 38 1910
2609 0.17758294775797798 1.0926851950996399 -0.52722251994855673 120 116 113 1.3398807219907924 39 2115 38 1916 41 2732 42 2089 48 2421 45 2056 36 2548 31 2546 39 2114 47 2244 24 2517 32 2709
2610 -0.26382435006182287 1.1089572258053342 -0.53407735969628212 124 119 116 0.70301290548452655 39 2129 38 1917 41 2107
2611 -0.030515058299092818 1.0872330246245729 -0.56404921908108874 64 60 57 0.96911482828854112 39 2123 38 1918 41 2104
2612 0.24081871683429473 1.1024028207451966 -0.53545259114361887 59 55 52 0.42266927054104442 37 2983 38 1920 41 2097 44 2045 42 2095 46 2491
2613 0.52564590599619687 1.0919287542014025 -0.52830408370745963 74 70 67 1.3449118094878774 35 2373 38 1923 31 2562
2615 0.29777767225545448 1.7096087571973191 0.16584521354386736 140 136 133 0.67465301687733747 43 3971 38 1946
2616 0.0035752461467522499 0.7941709683246021 -1.1957352976758389 80 76 73 1.6887135387842571 40 2658 38 1948
2617 -0.10646858411792125 1.2919731428246271 -0.56485009645379225 97 93 90 0.60978452198727562 39 2668 38 1964 41 2455
2618 -0.042694402548694353 1.2866029961772516 -0.5787218208034719 115 111 108 0.50349867220685074 39 2667 40 3352 38 1967
2619 0.25858800736965232 1.3026707103242581 -0.56578160004344924 111 107 104 0.36588599568836655 39 2663 38 1978 41 2461 44 2628
2620 0.41597755712303108 1.313040077519084 -0.56850229912196126 125 121 118 0.65692774788820973 39 2159 40 2670 38 1982 41 1995 46 1700 45 2115 47 2206
2621 -0.01181044520514783 0.63627345951442915 -0.51853989256461075 80 68 61 0.77870770559061264 39 2066 40 1384 38 2036 41 2161 44 2293
2626 0.34416359131640989 0.4694179305090353 -0.51806434786349642 136 129 123 0.54587396622591133 40 2889 38 2077 41 2200 44 2328 42 2320 46 2571 48 2647 45 2244 47 2913 50 2114 52 2412
2627 0.33378497231032361 0.39164623520620795 -0.53130319034749462 113 102 100 0.3610739513898753 40 2924 38 2100 46 2590 45 2268 47 2488
2628 0.64855135956271037 0.38271290157560445 -0.45709493825185393 150 126 116 1.1362509092774682 37 2293 38 2110 41 2237 44 2361 48 2674
2629 0.38405182781004527 0.37178353114674279 -0.49180187827632066 178 157 152 0.80415283254181569 39 2253 38 2111 41 2241 42 2350 46 3340 49 2414
2630 0.060620463398433064 0.34141603161088363 -0.52114639807240215 180 174 174 1.5114760936680163 40 1347 38 2117 36 2781 31 1488
2631 -0.45798986602625247 0.33490504995770198 -0.5471536317968636 159 128 126 1.2645570278903921 39 1590 38 2120 41 2249 44 2374 42 2379 33 1678
2632 0.78622625560086568 0.33278630947925408 -0.42409173868529965 198 178 169 1.0442901496521746 40 3669 38 2125 44 2380 47 2004 49 2271
2633 0.64010351029353674 0.29011326255285658 -0.47185329777757617 212 194 189 1.4586421415113364 40 2973 38 2132 41 2261
2634 0.4119440942812882 0.13163027898088711 -0.91765647268577633 216 201 196 0.94490952812210294 40 2977 41 2267
2635 0.22814122200901554 0.21678739509766282 -0.60641929269711259 224 210 204 0.36533748956033868 39 2061 38 2146 44 2399
2637 0.32973397625114792 0.24608809064174339 -0.36745926889801889 164 159 153 1.4741147384116926 39 1557 38 2158 41 2283 41 2284 44 2413 42 2416 46 2667 45 2337 53 3052
2638 0.32245493724971053 0.22669011557424562 -0.36657034439446057 195 190 186 0.13212458216787507 40 3020 38 2171 41 1970
2639 -0.40560750599027268 0.20756940024640788 -0.40952139090264644 174 156 152 0.29326113425742478 37 2262 38 2175 41 1965 33 2938 34 2858
2640 0.62706725815463393 0.17455049066299463 -0.31932775325761426 206 181 182 0.58650101947767064 40 2500 38 2191 42 2436
2641 0.27460941428790547 0.16364463334193291 -0.34055138876655972 161 150 152 0.64548060111333716 40 2502 38 2196 42 2445 48 1650 50 2144 52 1980 51 1421 54 1813
2642 -0.099005596763780929 0.15590817361653742 -0.34278577632622509 161 146 141 1.2367024974104017 37 2231 38 2198 41 1944 39 2308 44 2441 33 2419
2643 -0.13656530337386633 0.13778072933535038 -0.3492233388911688 186 167 163 0.41168340991831298 40 1689 38 2201 48 2323 36 2249 34 2421 24 2195 32 2345
2644 -0.11190220016268897 0.11615569759127048 -0.26218283044940938 145 145 143 0.54314326747296759 40 2478 38 2210 42 2056 48 3532
2645 0.63065823045075198 -0.075378901569415319 -0.084508555914134573 94 94 96 1.9888210042977215 37 2166 39 2381 38 2226 44 1560 40 2384
2646 0.62568859805075372 -0.094616625352994976 -0.060415961738014584 95 95 97 0.74385468198329707 39 2385 38 2227 41 1923 44 2013
2647 0.62996944505052765 -0.27317657643128668 -0.028490473890889823 121 122 126 0.95126208085947817 39 2418 38 2238 41 1910 44 1987 42 1965 46 1743 48 1198 45 935 47 1220 49 1233 50 2063 52 1897 53 2938 55 2959
2648 0.59218803537514653 -0.28872689990935807 -0.03489013499591153 133 134 138 0.23532984749819522 39 2421 38 2240 42 1963
2649 0.32507366781100311 -0.31492083767875251 -0.13571173255630595 89 90 94 0.58888552614196243 39 1907 38 2243 41 1903 44 1981 46 2119 48 2122 45 1880
2652 -0.91252817315071355 1.0171180275944294 0.22338791310476713 153 148 145 1.2419141838316563 40 2802 38 2283
2653 -0.38458007381534759 -0.43606873089824261 0.083836242923185492 111 114 119 1.6261850067467927 37 2861 38 2316 34 2999
2654 0.47144620678340499 -0.34288704238720524 -0.058516921070148102 58 59 63 0.40882721754171791 39 2043 38 2324 41 1682 44 2522 42 2560 46 2791 49 2370
2656 0.62165396538834483 -0.097024390975868263 -0.079087040116419982 95 95 97 0.68660295115789205 39 2546 38 2342 41 2373
2657 0.73358982661455108 0.23643904008278188 -0.37100738317800475 208 191 183 0.46954480948751393 39 2294 41 2389
2658 0.8466399123979691 0.34629650150851876 -0.41119752831806045 149 138 136 0.3616717029144263 40 2959 38 2367
2659 -0.078809582371992232 0.34976272120951313 -0.49446123497439998 163 149 144 1.1176116480282163 39 1825 38 2369 32 2968
2660 0.33378497231032361 0.39164623520620795 -0.53130319034749462 113 102 100 0.3610739513898753 40 3268 38 2374 46 2959 45 2486 47 2356
2661 0.31083603858265679 0.92409615672685097 0.63410555690369641 104 103 98 2.9327919915232519 35 2497 38 2382
2662 -0.38251553663010035 0.74193097421858556 -0.44976944290121784 110 91 85 0.70495029804080278 39 2631 38 2392 41 2144 44 2275 36 2623 33 3139
2663 -0.10644043557760327 1.014382369655259 -0.52148065428403823 81 77 74 0.31991830895092516 39 2105 38 2398 42 2883
2664 -0.14079846292233936 1.0244382448274039 -0.52075753883425668 124 123 119 0.53050015388222982 39 2640 38 2401 34 3489
2665 0.19188991695329924 1.1180144447020863 -0.53959909962985386 73 69 66 0.66919623113435089 43 2940 38 2412 42 2097 46 2487
2666 0.31208535941127935 1.1188099241842371 -0.53836788986355177 67 63 60 0.62553515700846785 40 1518 38 2414 46 2477
2667 0.29777767225545448 1.7096087571973191 0.16584521354386736 140 136 133 0.67465301687733747 43 3933 38 2418
2669 0.32501662614633664 1.3073192160935441 -0.5710044725921698 127 123 120 0.41538174476214451 40 3685 38 2438 46 2361 42 2166 45 2109
2671 0.1049896348457742 -1.723848019818484 0.18452852944425105 96 100 104 0.61066434183375184 39 2740 38 2481
2673 0.0011699109885535768 -1.6355391306057163 0.25825349934334135 142 142 150 0.54502765661783037 39 1484 38 2513 41 2600
2675 -0.035858111553132191 -1.5224583848695974 0.24909433185833474 120 120 128 1.2341997147256398 40 3698 38 2527 41 2605
2676 0.15556743938234105 -1.361744221764511 0.17307802785222881 98 98 106 2.1284465833390103 40 3454 38 2536 41 2612 44 2719 42 2811
2678 -0.27964343913475448 0.72503569044546667 -0.43732494150595524 176 157 149 0.50290865410718788 39 2079 38 2558 48 2601
2681 0.37371630009075057 -1.0020294544312207 0.55811814732943077 207 211 212 1.6192932679971157 39 2921 38 2585 48 3311
2683 0.50856799687259446 0.38378355188300028 0.69007597361770145 196 184 186 1.2189797155940103 37 2222 38 2651
2684 -0.23180398816189812 -1.2533175707586519 -0.91545812361552503 167 167 167 0.72102258394169128 35 1262 38 2656
2685 0.68398058518596572 0.16023017183674032 -0.14307736135974439 95 93 96 0.26497812880988653 43 526 38 2658
2686 -0.13547544669429898 -0.57609782579832958 -2.5505800860220256 146 152 148 2.6810051056987803 39 1645 38 2660
2688 -0.23180398816189812 -1.2533175707586519 -0.91545812361552503 167 167 167 0.72102258394169128 35 1081 38 2672
2689 0.44801689301097636 1.2925422070900305 -0.55366732484123182 63 59 56 0.53454395360244711 40 3676 46 2360 42 2737
2690 0.40447320032304424 1.286408622737145 -0.56076174736901185 63 59 56 0.51761471678478166 46 3311 36 2350 38 2674
2691 0.23147111357414921 0.53980694049916345 -0.53422151332719592 130 132 127 2.4756772954117499 43 3044 37 1502 40 1371 38 2060 35 944 38 418 41 1262 41 2679 44 2902 42 618 42 2309 44 2911 46 1134 48 554 40 1819 45 651 36 1143 34 1180 33 1716 31 1532
2692 0.40322671410785926 0.40231497832766949 -0.48988183054775147 62 52 44 1.3256012739643279 35 2532 43 3916 40 1922 38 1023 39 1114 43 1510 41 1003 44 2358 42 2335 39 2241 46 2591 45 1314 36 3333 47 1827 49 2251 50 2317 52 1823 51 1009 53 1947 55 1890
2693 0.11386898747142529 1.1007960808144512 -0.53778510865432305 58 52 48 0.61100530359081706 35 1390 43 1828 37 1273 39 1381 38 1369 35 2977 40 2599 41 1554 44 1460 46 1669 36 1290
2694 0.32578288352391949 0.42719192859263794 -0.52635980359069967 218 204 197 1.3604846829590935 35 1934 43 1734 37 2040 38 1304 43 3085 37 2334 40 2906 39 1601 41 2211 41 2654 39 1598 44 1360 46 2581 48 1435 48 1436 45 2254 36 1715 34 1890 33 2860 47 2352 47 2490
2695 -0.23840290183718824 -0.51364955681710112 -0.025413203531387304 56 55 60 0.52261786442398361 35 3211 43 3779 37 3243 38 1783 40 2224 39 1997 34 2212
2696 0.79586073118514244 0.62701260416643445 -0.44479458852518688 144 128 95 1.3189479424148529 40 195 38 210
2697 -0.45829353398292272 0.14378094678661663 -0.075839185224822594 197 198 194 0.8088357054041666 43 1907 44 1573
2698 -0.099382070205612225 -0.67728499327227842 0.85162734334361179 80 79 87 1.1644111805606601 39 2771 38 1756
2699 -0.43950182990355546 -1.6899104153812401 4.0028240478646735 182 186 192 2.1833701661751936 40 1434 38 2282
2702 -0.88001471510041407 -1.3646589742721649 1.7030219186620223 206 209 216 1.5019646899175514 38 2 44 2 42 16
2704 0.19253344472888814 -0.56956461953154458 0.07166958653701469 152 151 156 1.2589719710203482 38 31 41 21 42 23 46 25 48 21 45 24 47 38
2705 0.19444067229635373 -0.56873896258944134 0.069118628270698285 152 151 156 1.3031886767946315 38 27 41 24 44 24 42 24 46 24 48 31 45 33 47 37
2706 -0.042264082834106591 -0.54251109479661619 -0.012108594657782273 136 137 141 1.4924324653234065 38 39 41 27 42 69 46 68 48 69 45 73
2707 -0.10140523011546032 -1.3216776077030059 0.64032217302471717 77 78 83 1.0453847727144667 35 52 41 40 44 39
2708 -0.21569390737117555 -0.7740811682927573 0.3454621937125617 58 62 65 1.6433249819884321 44 40 42 44 47 50 38 83
2709 -0.32231447623915377 -0.21762996745374236 -0.014839037554654945 70 65 62 1.5000023340765605 38 32 41 43 44 43 46 46 48 47 45 31 47 91
2710 0.59483280747171641 0.074758750143926814 -0.17874013226481467 95 93 94 1.8087797079952042 43 57 41 45 44 45
2711 0.46878013593115575 -0.83958185124049134 1.0978715782151807 61 64 71 0.46938971868704549 38 84 50 1930
2712 0.29207360644567421 -0.73761356997572758 0.18933367509971263 54 57 64 0.89915711175120439 43 81 46 56 35 66 48 56
2714 0.14255996504311277 -1.509754140150485 0.28609798162593286 59 62 69 1.5443192087000421 43 89 41 93 35 77
2715 -0.2527857955403856 -1.4219913556571029 0.6277523426357341 188 193 189 0.73275695085690229 37 102 41 96 42 288
2716 -0.25825957361591489 0.15677734695408524 -0.34069205332715613 177 160 141 1.1234572503270555 38 71 41 106 44 98
2717 0.45913824727845137 0.60457599093041692 -0.36226184297982938 121 102 97 0.99166802084956418 38 143 41 152 42 147
2718 0.5037131248240525 0.76097753381348843 -0.43967813547318041 161 142 135 1.3246845910867391 40 174 41 154 48 111 45 102 36 250 34 196
2719 0.13277332714739276 0.28663512019980536 -0.52428230454675617 127 117 112 0.33184230628904948 37 249 38 159 41 164
2720 -0.32480461791298626 1.2808076017287453 -0.57468200441752559 63 58 55 1.1438726695527821 37 167 41 169 44 118 42 122 45 221 36 142 34 257 33 189 31 265
2721 -0.3505027649312133 -0.91180259619012971 -1.6170816280882014 0 0 0 3.649514672144881 35 1541 38 365
